ply
format ascii 1.0
element vertex 1174
property float x
property float y
property float z
property uchar red
property uchar green
property uchar blue
end_header
-1.374505 -6.704445 -3.216741 41 44 49
0.6223204 -7.2046 -2.858199 106 93 65
-3.80877 -3.894814 -3.113533 172 170 180
-1.259132 -1.315382 -2.467579 41 40 24
-0.5929139 -5.6332 -3.107295 197 190 205
-3.610141 -5.227929 -3.148447 156 137 123
-3.161967 -6.196865 -2.977162 90 24 24
-2.163825 -0.8375733 -2.389453 115 109 98
-2.137976 -0.8421351 -2.646089 90 85 74
-3.045115 -4.329694 -3.102099 156 149 148
0.1181982 -6.00594 -3.127943 180 178 189
0.2456998 -6.726659 -3.160152 123 101 115
-1.827142 -4.834741 -3.253381 24 28 41
0.2448402 -5.949679 -3.142953 65 64 82
0.1318021 -8.14978 -3.164906 148 145 148
-3.383751 -4.86434 -3.121802 189 178 180
-1.991048 -5.415372 -3.066124 49 28 41
-1.659158 -7.316967 -3.176101 180 174 189
-1.202786 -7.219151 -3.139195 164 157 172
-0.4838935 -5.644576 -3.099188 148 141 156
0.2055385 -7.245475 -3.133599 180 174 180
0.4661753 -6.598685 -3.12273 131 93 106
0.6819018 -7.121144 -2.958317 90 76 57
0.8008927 -7.967556 -2.728878 90 85 98
-2.926605 -4.327798 -3.101384 180 178 189
-1.380858 -1.350425 -2.481938 82 80 57
-0.9337615 -7.052227 -3.172839 98 85 82
0.3077244 -7.882169 -3.092515 74 64 65
0.4623552 -6.66043 -3.133883 180 141 156
-3.297132 -1.606206 -3.062283 164 145 139
-2.713021 -4.528152 -3.124513 180 165 164
-1.810949 -5.308954 -3.156386 156 145 156
0.490774 -6.283204 -3.134052 156 157 164
1.282394 -10.6292 -2.30431 82 101 106
-2.368022 -0.7591982 -2.714083 57 60 49
-3.216493 -1.432494 -3.076354 148 137 131
-2.42011 -0.74071 -2.799812 106 105 98
-2.776882 -0.5459624 -3.083657 90 97 98
-2.148977 -0.8386983 -2.440614 57 44 32
-3.298884 -1.634838 -3.060158 74 60 49
0.5647578 -7.183976 -2.892438 115 105 106
-2.393296 -0.7681817 -2.686343 49 44 32
-1.51996 -6.452332 -3.045732 41 24 41
-2.373045 -0.7637801 -2.688876 49 44 32
-3.026161 -6.059592 -3.057898 57 16 8
-2.158143 -0.9532386 -2.630907 32 24 16
-1.383711 -1.669664 -2.445023 106 121 98
-3.490385 -4.024375 -3.102498 189 186 180
-1.880421 -5.32319 -3.166943 57 36 49
-1.471467 -1.061409 -3.051431 115 109 90
-3.75076 -4.183005 -3.072552 156 149 148
-2.45511 -2.693358 -3.061177 156 157 148
0.3980568 -5.992008 -3.093615 189 194 205
-3.315375 -1.478163 -3.053804 82 72 65
-3.073055 -0.4178595 -3.09385 74 76 65
0.04469305 -7.069423 -3.155651 189 186 197
-3.221382 -1.557087 -3.056318 98 85 74
-3.312133 -1.699809 -3.057598 189 182 172
-3.414376 -4.156466 -3.100551 164 165 172
0.8313923 -6.418683 -3.10143 164 157 156
-1.783566 -5.29312 -3.142681 180 165 172
-3.13755 -4.881636 -3.09742 106 89 82
-3.712276 -3.235713 -3.216559 24 32 32
-1.006516 -5.672973 -3.083558 16 16 16
-1.14029 -5.332344 -3.085429 205 206 205
-1.859321 -5.001429 -3.182888 172 161 172
-3.198033 -1.462266 -3.055258 82 72 74
-1.504926 -2.909167 -3.027239 57 36 8
-3.577721 -5.113891 -3.147069 115 93 90
-1.654875 -5.720249 -3.130249 123 109 115
-1.582768 -4.982641 -3.109003 49 56 65
-0.4362096 -6.008865 -3.084832 164 157 164
-3.697648 -4.979928 -3.088228 197 190 148
-3.398809 -4.427426 -3.07773 131 117 123
-1.416722 -5.852942 -3.130877 49 48 49
-3.288058 -6.167716 -2.847774 82 16 16
0.5973434 -7.060667 -2.901348 115 105 98
-3.396746 -1.628265 -3.055555 123 113 98
-3.591915 -4.442186 -3.104547 189 182 180
-3.780551 -4.468385 -3.089605 156 137 115
-3.368408 -5.238919 -3.145314 156 141 139
-3.510148 -5.106938 -3.132918 156 145 139
-3.615237 -6.321278 -2.99355 164 153 106
0.5887747 -7.085453 -2.940219 57 36 32
-2.767682 -0.7187254 -2.171306 180 194 213
-3.178615 -6.136264 -2.964421 82 24 16
-3.696407 -4.547373 -3.111429 139 129 115
-1.766905 -5.326825 -3.119309 180 165 164
-3.684538 -4.178069 -3.050803 156 145 148
0.777795 -6.106861 -3.150507 148 145 156
0.4942106 -7.273105 -2.865022 106 89 90
-3.038188 -5.665961 -3.06905 189 178 131
-2.077441 -2.833396 -3.00818 255 250 246
-1.04364 -7.164831 -3.202043 123 117 123
-0.7300315 -8.723406 -2.118011 90 105 115
-0.9172286 -7.771662 -3.209713 123 125 139
-3.236366 -5.555368 -3.171627 180 174 172
-3.325979 -4.156087 -3.124542 180 182 189
-2.226205 -0.8020585 -2.826264 98 89 82
-3.472146 -5.181921 -3.138871 156 149 148
-1.620876 -5.765956 -3.132682 106 89 90
0.08407178 -7.198537 -3.137667 131 129 139
-0.8278844 -8.680872 -2.096239 82 93 106
-2.055281 -7.3002 -3.009239 106 121 131
-3.227443 -5.591171 -3.15547 139 137 123
-2.124042 -0.848749 -2.444168 57 48 41
-3.282553 -5.548182 -3.178945 148 141 139
-1.616924 -6.461582 -3.042479 41 24 32
-1.221439 -5.372787 -3.124301 164 161 164
-3.377318 -5.326499 -3.154853 139 133 131
-3.594065 -4.627789 -3.118407 156 153 156
-1.152692 -7.853679 -3.228544 164 174 189
-1.393507 -6.681462 -3.20605 32 44 49
-3.253418 -6.157955 -2.932455 172 161 131
-1.553286 -6.474773 -3.049024 41 24 41
-1.489466 -5.860262 -3.127096 24 28 32
-3.740097 -5.620229 -3.157246 197 182 131
-2.763182 -5.118015 -3.147537 156 145 156
-1.943896 -5.28031 -3.123338 41 28 41
-1.921054 -4.919928 -3.234658 8 12 16
-3.013583 -4.981786 -3.133874 98 80 82
-3.091105 -4.981033 -3.130235 148 129 131
-3.44069 -4.369123 -3.083267 164 157 164
-2.880172 -5.672371 -3.099283 41 20 24
-3.187033 -5.58126 -3.135318 148 141 131
-1.582042 -0.7000353 -4.438161 74 72 65
-1.830297 -4.735161 -3.317838 57 64 82
-1.74529 -4.822402 -3.253468 57 64 82
-1.745926 -4.765943 -3.341257 8 20 32
-1.852314 -4.700654 -3.417467 41 44 57
-3.350862 -4.187481 -3.134451 164 165 180
-2.423007 -2.669247 -3.025638 115 109 82
-2.228647 -0.8221577 -2.659936 57 48 41
-0.6266896 -7.927407 -3.256161 139 141 156
-3.673299 -4.322649 -1.577175 90 101 115
-1.038396 -1.674648 -2.183607 49 64 41
-2.113346 -0.8539894 -2.658306 90 80 74
-3.675736 -4.22684 -3.083432 156 145 139
-2.321751 -2.639576 -3.085717 213 210 197
-2.279058 -4.827965 -3.1422 172 161 156
-2.989396 -5.421412 -3.161579 172 165 164
-2.448758 -0.7099034 -2.765543 106 105 98
-2.023771 -1.512284 -2.575453 230 222 222
-1.188187 -7.196514 -3.215693 164 165 172
0.1338451 -7.05496 -3.164794 156 153 164
-1.398112 -7.772528 -3.225241 106 113 123
0.03928993 -7.664179 -3.164042 148 121 131
-3.812888 -5.862894 -2.779271 172 165 115
-3.434152 -4.25869 -3.112882 164 157 164
-0.2762105 -6.284274 -3.131117 180 182 189
-1.695311 -0.9379553 -3.033829 139 133 123
-3.798146 -3.825917 -3.122385 139 137 139
-3.01764 -5.982758 -3.021484 82 20 16
-2.202801 -0.8278325 -2.770955 74 68 57
-1.229129 -1.190812 -2.273446 16 24 8
-2.075765 -0.8648096 -2.444172 65 44 32
-4.102845 -5.272493 -2.892913 139 129 74
-2.133405 -0.7935477 -2.686598 74 68 57
-2.310979 -2.634592 -3.025347 115 113 65
-1.004006 -7.960711 -3.209504 164 170 180
-3.714323 -4.932512 -3.099221 82 72 32
-0.5880692 -6.276852 -3.124247 74 64 57
-3.273398 -4.902527 -3.149758 189 178 172
-2.055096 -0.8718889 -2.675082 90 80 74
-2.672354 -0.6497766 -3.088868 82 97 90
-1.249629 -5.346331 -3.266139 65 64 82
-1.428314 -7.391634 -3.231036 139 141 148
-2.84547 -6.021755 -3.205141 41 24 32
-2.580167 -5.402107 -3.017653 41 20 32
-2.14635 -7.511078 -3.151878 106 117 131
-3.200443 -4.197363 -3.124546 139 133 148
-1.593898 -5.886643 -3.17155 106 89 90
-0.5860928 -5.932849 -3.11019 123 121 123
-1.960986 -5.301917 -3.17791 41 20 32
-2.375104 -2.696966 -2.980423 172 165 115
-3.697388 -6.773964 -2.092212 98 109 115
0.1120252 -7.143378 -3.163045 172 178 189
-1.62585 -2.295532 -2.978896 139 141 139
-3.917979 -3.439251 -3.762209 74 76 82
-2.263711 -2.767336 -2.984548 131 125 115
-3.388696 -5.696548 -2.957478 164 153 98
-3.842483 -6.927979 -2.241538 90 105 115
0.07532369 -8.095579 -3.168473 131 133 139
-2.303219 -2.638288 -3.039073 106 105 65
-2.290045 -0.7720425 -2.735371 49 48 41
-2.742593 -1.361253 -2.940224 90 76 57
-0.90097 -1.35534 -3.020893 98 97 90
-3.773074 -6.336025 -2.763299 98 109 123
-2.201443 -0.7982911 -2.941566 74 68 57
-2.350224 -0.7734869 -2.686161 65 48 41
-1.535369 -1.110685 -3.145245 115 113 106
-2.775986 -1.370858 -2.931207 123 105 98
-2.181609 -0.80583 -2.884892 74 68 57
-1.96813 -2.800644 -2.994303 115 117 106
-3.381035 -5.847521 -2.937139 164 153 106
-1.765616 0.08762071 -1.089064 156 157 148
-1.117516 -5.486773 -3.09854 172 174 180
-2.850538 -2.431374 -3.060129 98 89 82
-3.766232 -6.312483 -2.769575 98 101 106
-2.314407 -0.6950933 -3.925991 74 68 57
-3.024752 -5.452734 -3.159024 164 157 156
-3.9015 -4.035688 -3.096806 180 170 172
-1.808664 -2.413648 -2.863878 189 109 106
-2.912702 -5.361483 -3.162352 180 174 172
-3.893154 -5.590469 -2.800637 82 72 16
-2.134123 -0.8497415 -2.500891 49 44 41
-3.40469 -4.477553 -3.111232 131 121 131
-2.372336 -2.669265 -2.987028 139 129 82
-4.199899 -6.178093 -2.696013 98 113 106
-2.301745 -2.67329 -3.094026 148 149 131
-2.963037 -7.3495 -2.026774 123 101 106
-2.921704 -0.5158658 -4.138881 41 36 24
-1.804053 -2.340425 -2.933706 106 89 82
-3.771523 -4.582556 -3.114727 156 137 115
0.04017024 -7.261027 -3.166919 139 137 148
-0.7986984 -0.9432545 -4.464552 131 121 115
-3.305475 -6.254067 -2.909867 82 24 16
-2.359303 -2.670078 -2.99984 164 157 115
-1.76071 -0.5683932 -4.474263 90 89 82
-3.999112 -5.391001 -3.011258 164 157 98
-1.335035 -1.144358 -3.694757 90 85 74
-2.193179 -0.7992159 -2.972973 74 68 49
-1.88267 -1.502199 -2.685935 164 170 156
-3.498742 -4.305796 -3.100659 156 153 164
-1.001052 -1.177922 -4.39714 65 60 49
-1.380638 -1.157985 -3.624017 49 44 41
-2.177846 -0.8067426 -2.838692 32 24 8
-4.231919 -5.92631 -2.74419 139 133 82
-3.902013 -4.91405 -2.998282 180 170 115
-1.451674 -1.13674 -3.593818 82 72 57
-2.327066 -2.683716 -2.971952 115 105 57
-3.671322 -6.762778 -2.095048 106 105 115
-3.830309 -5.555001 -2.90712 164 153 98
-3.025702 -5.641196 -3.044353 205 194 148
-2.29504 -2.640547 -3.002965 90 89 41
-3.689744 -4.472414 -3.110147 180 174 172
-2.421171 -2.694558 -2.995298 106 101 74
-1.338764 -1.189828 -3.578842 82 76 65
-2.446959 -2.69183 -3.028309 205 206 205
-2.491446 -0.3501449 -4.461379 65 68 65
-1.276171 -6.893883 -3.179413 123 129 131
-3.807785 -5.586981 -3.126467 197 190 131
-3.943604 -5.479046 -3.042251 180 174 115
-2.098543 -1.443496 -2.508405 148 153 156
-3.87792 -5.516659 -2.878041 148 137 82
-1.864208 -4.948373 -3.241246 32 32 41
-2.985909 -5.665774 -3.043114 41 24 24
-1.327878 -5.601424 -3.127631 148 149 148
-2.128974 -0.8512318 -2.567495 41 28 16
-3.114438 -4.964134 -3.135394 106 93 90
-4.134037 -5.266481 -2.932709 123 121 65
-3.944572 -4.45182 -3.101694 90 85 57
-3.107769 -5.840466 -2.98943 172 165 123
-4.273924 -5.924455 -2.75421 115 109 65
-0.4918676 -1.417742 -4.442135 90 93 82
-3.348488 -4.406781 -3.096993 123 113 123
-0.9303838 -1.121181 -4.443258 98 97 82
-1.057111 -1.052619 -4.444169 90 89 74
-3.015072 -4.99637 -3.139255 82 72 65
-3.99455 -5.384179 -2.905607 139 133 82
-2.3407 -2.626441 -3.030923 106 101 57
-1.86574 -5.192168 -3.179972 115 105 115
-1.166753 -1.28726 -3.03931 74 72 57
-2.011399 -0.4490021 -4.465035 106 101 98
-1.034037 -0.9455148 -4.426386 98 97 90
-3.524161 -5.698261 -3.016178 148 137 82
-2.535591 -3.212111 -2.628439 57 64 82
-1.731411 -4.778322 -3.31784 41 44 57
-3.940073 -5.956022 -2.740561 156 149 98
-1.775328 -4.768535 -3.364113 49 56 65
-3.891273 -5.532595 -2.959306 156 153 90
-1.0322 -6.013849 -3.079278 41 44 49
-3.84927 -3.756201 -3.585397 0 8 8
-3.539611 -5.473751 -4.958534 65 72 74
-1.708293 -0.893967 -3.074103 90 80 74
-2.961825 -5.676456 -3.052293 32 16 16
-1.109901 -7.134172 -3.178827 115 117 123
-3.902038 -5.580357 -3.079993 90 80 24
-0.7599626 -1.094164 -4.442875 115 113 106
-3.263163 -4.379821 -3.075786 156 157 164
-3.128976 -4.280032 -3.130413 180 178 180
-1.735978 -4.805505 -3.308145 41 48 57
-0.7346866 -1.044782 -4.448298 123 117 115
-1.708372 -4.756021 -3.359536 41 48 57
-3.873399 -5.580949 -2.759851 156 153 98
-4.540762 -7.614031 -2.237018 123 137 156
-0.9268743 -1.19521 -3.894258 82 80 74
-3.95973 -4.469826 -3.078712 156 153 106
-0.6745583 -1.871582 -2.869727 189 174 189
-0.5499154 -1.603025 -4.094241 74 68 65
-3.143345 -5.114329 -3.136415 123 109 98
-3.945496 -5.88833 -2.769286 172 165 115
-2.471064 -4.665576 -3.165629 180 178 197
-4.022255 -5.418155 -2.957511 156 153 90
-4.104781 -5.30354 -3.01557 148 137 90
-3.337025 -5.806423 -2.969008 172 161 115
-4.093338 -5.250758 -3.037369 189 178 123
-4.059625 -6.157017 -2.694813 82 93 98
-4.080837 -6.19736 -2.687652 82 97 106
-2.55594 -0.5359023 -4.458763 32 24 16
-0.9188652 -7.089427 -3.184882 74 72 74
-3.396802 -5.203241 -3.154922 180 170 164
-2.022815 -1.460631 -2.582786 255 250 246
-3.993337 -3.972899 -3.11731 139 133 131
-1.829112 -1.430941 -2.730744 82 85 74
-0.5997257 -1.876675 -2.849502 106 109 123
-1.028529 -7.208665 -3.193658 98 93 98
-1.383729 -1.139704 -3.691415 49 44 32
-1.781486 -5.00642 -3.180504 131 125 139
-1.209529 -1.201074 -2.266186 32 44 16
-2.76221 -5.548647 -2.991014 41 20 32
-1.803644 -1.450987 -2.766589 131 133 131
-4.175652 -4.159272 -3.183615 164 153 156
-1.413187 -7.348907 -3.2447 148 149 156
-2.451901 -4.900582 -3.1173 172 161 172
-2.000802 -1.516726 -2.595444 255 246 246
-0.957775 -1.971871 -3.036946 65 60 0
-1.868802 -1.453499 -2.709114 115 113 98
-3.251133 -4.174349 -3.133258 131 133 148
-0.8620915 -0.6676662 -4.461407 131 129 123
-1.916894 -1.562406 -2.655183 180 182 180
-1.808946 -4.996781 -3.21446 139 137 148
-0.6031879 -0.9767548 -4.446074 148 141 139
-0.1636678 -1.877308 -3.972957 8 0 0
-0.9218785 -1.494032 -2.282681 74 97 74
-3.260073 -6.133716 -2.935168 172 161 131
-4.015207 -5.247852 -2.996394 189 186 131
-1.12844 -5.21984 -3.12223 57 60 82
-2.218407 -5.23952 -3.174495 164 157 164
-2.49869 -5.245114 -3.143212 148 137 148
-3.019554 -5.763666 -2.973397 172 161 123
-1.401213 -1.161244 -3.714008 49 40 32
-3.993984 -5.962708 -2.75497 148 145 98
-2.011615 -1.476591 -2.582384 205 190 197
-2.344914 -2.658201 -2.982119 156 157 98
-3.371821 -5.095922 -3.153104 156 149 148
-4.218329 -4.138717 -3.192348 139 133 131
-3.003319 -5.634385 -3.051021 32 24 0
-2.063428 -0.8668968 -2.542515 24 24 16
-1.792377 -4.990999 -3.196896 180 178 189
-4.688743 -5.802358 -2.996072 65 68 24
-3.827456 -6.309019 -3.289083 148 141 82
-2.203769 -0.8213099 -2.687297 57 52 41
-3.938842 -4.498743 -3.129382 148 137 106
-4.050969 -4.415961 -3.129378 172 165 156
-1.484305 -7.30748 -3.263283 106 97 106
-2.784983 -1.300384 -2.950444 156 141 131
-4.119404 -5.24931 -2.955103 180 174 123
-2.264262 -2.765927 -2.991511 123 121 106
-1.924488 -0.9387941 -2.713388 65 52 32
-1.990444 -1.502792 -2.598757 197 186 189
-1.734908 -5.035381 -3.156242 131 125 131
-2.21202 -0.7509073 -3.58533 74 68 57
-2.035715 -1.512659 -2.56076 197 178 180
-2.855676 -1.315157 -2.927488 172 129 115
-0.827291 -2.503316 -5.710284 82 72 65
-0.8673798 -2.129167 -2.941064 115 101 106
-1.934263 -1.518815 -2.643086 213 206 205
-2.021653 -1.405138 -2.581281 246 238 238
-3.973815 -4.994546 -3.014282 189 182 123
-0.6689662 -1.709099 -2.971462 115 117 123
-1.328936 -1.271171 -2.417103 65 64 49
-2.951717 -4.612409 -3.113539 139 129 131
-0.5940508 -1.814888 -2.850306 197 194 213
-1.372639 -1.116883 -3.720182 49 40 32
-1.874854 -1.466444 -2.695299 164 165 164
-2.314415 -5.01718 -3.120284 148 141 139
-2.459007 -2.704505 -3.063762 148 149 148
-4.694809 -5.909927 -2.855499 98 101 57
-1.794634 -0.9528573 -3.072468 164 153 139
-3.392712 -5.325442 -3.166916 148 137 139
-0.4417186 -1.466511 -4.399508 82 80 74
-2.201927 -0.8206593 -2.758955 74 64 49
-1.650958 -5.856231 -3.142391 123 109 106
-4.206418 -4.314533 -3.159252 172 161 156
-0.9572043 -1.425516 -3.05584 139 137 131
-2.365896 -0.3477327 -4.461685 98 93 90
-1.725326 -1.6115 -2.840168 32 36 24
-0.9418875 -5.731431 -3.10957 148 145 156
-2.653645 -4.790137 -3.131751 164 157 164
-3.403856 -5.15959 -3.155634 180 174 172
-2.987617 -5.678715 -3.122566 90 76 57
-3.691109 -5.299642 -3.116341 172 161 148
-3.005086 -5.573225 -3.130565 148 141 139
-4.078848 -5.357442 -3.039642 189 186 131
-1.707363 -1.483846 -2.841008 74 80 74
-1.959346 -1.546821 -2.631008 205 198 197
-1.851813 -0.9142965 -3.081151 164 157 148
-2.267648 -5.008568 -3.142115 164 153 148
-0.971256 -5.650933 -3.086287 131 133 148
-0.4916681 -1.063778 -4.409442 148 141 139
-0.6071325 -0.9797262 -4.443427 139 133 131
-2.114284 -0.8497145 -2.698303 16 12 0
-0.572024 -1.710504 -2.949941 49 48 65
-3.727164 -5.040569 -3.086707 115 109 57
-1.989287 -1.48264 -2.601652 205 194 197
-2.056087 -1.450371 -2.554109 189 174 180
-3.70246 -5.16007 -3.155068 131 121 98
-1.783451 -1.458438 -2.776067 148 157 148
-1.936346 -1.58876 -2.659179 164 157 156
-2.285095 -2.705338 -2.969457 197 190 148
-2.551352 -5.260432 -3.156595 148 137 148
-1.372335 -0.5271133 -3.29107 16 12 0
-3.850785 -3.842357 -3.751597 41 44 49
-2.852706 -2.434061 -3.061551 90 85 74
-1.149542 -5.490451 -3.127324 180 186 189
-1.897076 -1.500382 -2.675369 115 113 106
-3.143789 -6.151558 -2.985149 82 20 16
-1.061748 -7.423324 -3.178064 156 157 172
-1.895831 -0.927443 -2.705047 115 101 90
-3.439647 -4.299121 -3.092054 180 178 189
-4.269643 -4.422863 -3.146679 49 48 16
-3.935228 -4.425063 -3.133528 156 141 123
-3.973595 -4.52229 -3.131707 65 60 24
-2.966674 -5.099051 -3.108708 131 125 115
-1.855333 -1.469162 -2.713852 156 161 148
-1.014776 -10.19148 -5.319345 164 170 180
-3.408986 -4.412767 -3.102174 172 165 180
-0.5943025 -1.820701 -2.854871 197 194 213
-0.6650106 -1.708478 -2.990809 123 125 131
-0.5606778 -1.717933 -2.924607 164 165 180
-1.308216 -7.397099 -3.225654 106 113 123
-2.097571 -0.8539371 -2.442779 65 56 41
-0.5271921 -1.621132 -3.585169 90 89 82
-0.2859073 -1.70968 -3.980473 8 8 0
-2.8046 -5.327963 -3.139287 189 178 180
-3.165142 -4.551942 -3.088228 148 141 139
-4.052003 -4.609572 -3.10836 156 149 90
-0.6326531 -1.711754 -2.977948 65 72 74
-1.884679 -1.391604 -2.706936 156 157 139
-4.672159 -5.83011 -2.947951 172 165 115
-1.125865 -3.434596 -2.756187 41 44 41
-3.817712 -5.028441 -3.02602 205 194 139
-1.820574 -1.480023 -2.752043 74 80 74
-2.214115 -0.9088781 -3.383912 74 68 57
-3.249976 -4.522283 -3.08634 115 101 106
-0.8923911 -1.246459 -4.537502 82 80 74
-1.956781 -0.9002553 -2.687757 32 20 8
-0.6761963 -1.735789 -2.87287 123 105 115
-1.864388 -1.509179 -2.694431 90 101 90
-1.841539 -0.9195161 -3.045419 49 40 24
-2.200744 -4.632874 -3.168187 65 68 82
-1.141091 -7.616717 -3.197442 131 141 156
-3.131213 -4.98278 -3.122668 148 133 123
-3.372614 -5.333459 -3.152928 139 133 131
-0.1786084 -1.737519 -3.967611 49 40 32
-3.571995 -4.373855 -3.069144 189 182 180
-0.9551647 -1.428518 -3.093858 98 101 98
-2.427454 -0.9952442 -2.781648 74 56 49
-2.221432 -0.7101108 -4.061193 49 36 24
-0.5187295 -1.704399 -2.93294 90 93 106
-1.861375 -1.390451 -2.731473 148 145 131
-1.896378 -1.419859 -2.685605 115 113 106
-3.499263 -4.680203 -3.103843 189 174 180
-3.054244 -5.61124 -3.145345 164 153 148
-4.319705 -4.392889 -3.106106 164 157 106
-0.1612523 -1.832011 -3.978662 49 44 32
-3.261493 -5.328498 -3.141472 180 165 164
-3.435812 -5.217259 -3.157578 131 125 123
-1.858721 -1.427957 -2.717987 98 101 98
-0.6482213 -1.696053 -2.99913 90 93 90
-1.814239 -4.901073 -3.266177 65 68 82
-4.164958 -5.536574 -2.810139 156 153 106
-4.287094 -4.680609 -2.907961 189 182 123
-1.998638 -1.424474 -2.609025 255 250 255
-1.908728 -5.216374 -3.19514 156 145 164
-0.5058227 -1.698693 -2.911595 156 149 164
-4.13201 -5.26449 -2.930981 131 121 74
-0.1560988 -1.847093 -3.96911 16 12 8
-1.655287 -5.785739 -3.155708 106 97 106
-0.5712672 -1.700743 -2.942263 49 48 65
-2.022245 -1.345267 -2.620891 213 206 213
-1.684829 -5.796086 -3.156926 156 141 148
-0.5379333 -1.704553 -2.915337 172 165 180
-2.05437 -1.467922 -2.547167 172 161 172
-3.140137 -5.009856 -3.142481 123 105 106
-3.994853 -4.707512 -2.997888 164 153 98
-0.4896036 -1.698212 -2.92671 98 93 106
-1.987352 -1.464151 -2.600679 213 194 205
-0.5049921 -1.586012 -4.07946 49 40 32
-2.053421 -1.505092 -2.541746 189 165 172
-4.606461 -5.84193 -2.900383 106 105 57
-2.69584 -4.821227 -3.123528 156 149 148
-0.9894835 -1.993989 -3.03304 222 210 156
-3.632198 -5.220433 -3.160384 115 97 90
-2.035571 -1.474619 -2.566613 197 178 189
-2.132328 -5.139172 -3.184057 139 125 139
-3.500208 -5.17679 -3.144103 172 161 164
-4.002261 -4.346047 -3.117603 180 170 172
-4.219766 -5.198636 -2.987427 115 105 57
-4.213242 -4.576909 -2.98127 82 72 24
-1.694275 -0.5123008 -4.440993 90 85 82
-3.956847 -4.041921 -3.109625 148 141 139
-1.870463 -1.333745 -2.734382 148 145 131
-3.862594 -4.494916 -3.115965 90 76 57
-1.987362 -1.441096 -2.604519 213 194 197
-3.813293 -4.970485 -3.036389 156 145 90
-0.9685149 -1.97577 -3.031723 213 206 148
-3.660405 -5.263278 -3.17567 131 109 98
-3.98131 -4.464354 -3.124703 98 93 65
-1.851078 -0.9101107 -3.020919 82 76 65
-2.822358 -4.744459 -3.1202 148 137 131
-0.1683004 -1.858328 -3.975456 49 44 32
-4.466848 -5.920426 -2.742869 115 113 65
-3.706263 -5.286239 -3.159002 115 101 82
-0.4771866 -1.700443 -2.90851 180 182 205
-4.356477 -5.933339 -2.770248 90 89 41
-0.491699 -1.695113 -2.924297 106 109 123
-3.792787 -5.618992 -2.969639 148 145 90
-4.455719 -5.953891 -2.715708 148 153 106
-4.116455 -4.542312 -2.985209 98 93 41
-0.3877876 -1.547408 -4.076243 90 80 74
-4.193022 -4.489939 -3.032961 148 145 98
-3.834529 -4.512231 -3.105785 131 121 98
-3.799233 -4.12267 -3.095682 123 117 123
-4.106359 -4.552835 -2.967566 164 157 115
-4.072438 -3.684759 -3.189545 106 109 115
-0.3325915 -1.452253 -4.426053 57 52 41
-0.7984231 -1.185578 -4.429766 98 97 90
-0.9030697 -1.500087 -3.008355 156 157 148
-3.71365 -5.000835 -3.101347 180 182 131
-0.7976173 -1.124696 -4.436726 115 105 98
-3.657766 -4.328459 -3.093662 148 141 139
-2.138713 -0.8416112 -2.995131 82 72 65
-3.856682 -4.483813 -3.104522 98 89 65
-4.205754 -4.569267 -2.97383 106 101 49
-2.411825 -4.930741 -3.15105 139 141 148
-0.3924057 -1.820804 -2.825217 164 157 197
-0.6886999 -1.050072 -4.433371 123 121 115
-3.121782 -4.551321 -3.116425 148 137 139
-4.056934 -3.713514 -3.192298 115 117 123
-4.10094 -6.204266 -2.638603 90 105 115
-3.678906 -5.240462 -3.168546 148 125 115
-4.074333 -5.823223 -2.802953 172 161 115
-1.052942 -2.094134 -1.684541 65 68 82
-0.5626031 -1.865365 -2.832583 123 117 131
-0.2887409 -1.681764 -3.977792 32 28 16
-3.799674 -4.172543 -3.087097 139 129 131
-3.287809 -5.730307 -2.935036 172 161 115
-1.883036 -4.927053 -3.24944 139 137 148
-3.332586 -4.120441 -3.135658 180 178 197
-4.651116 -6.072324 -2.714047 148 149 139
-2.657039 -8.175813 -6.687732 123 109 90
-1.86708 -0.8897189 -4.04829 41 36 24
-3.911625 -5.563106 -2.769263 123 109 57
-0.8905864 -0.1027378 -1.787361 82 76 74
-3.353564 -4.218251 -3.117715 172 170 180
-4.255371 -4.684535 -2.87254 139 129 74
-4.574419 -5.237024 -2.933638 148 141 98
-0.8170253 -1.152609 -4.425051 106 105 98
-2.109819 -4.919202 -3.189256 180 174 189
-3.659316 -6.764895 -2.005083 98 105 115
-4.977352 -4.649915 -2.931139 156 149 148
-2.022135 -1.566241 -2.58094 180 165 172
-3.127809 -4.890719 -3.143936 115 101 98
-4.141919 -3.948762 -3.170862 172 165 172
-1.683604 -4.763496 -3.412221 41 44 57
-4.470364 -5.929162 -2.74633 115 113 65
-0.5365285 -1.715013 -2.891046 180 170 180
-3.402069 -4.66118 -3.122819 148 133 139
-4.042449 -5.389222 -2.924702 148 141 90
-4.256442 -5.833878 -2.618124 164 165 131
-3.003742 -5.481803 -3.164006 139 133 139
-1.710114 -1.514666 -2.832116 41 48 41
-1.982674 -1.398631 -2.603022 205 190 197
-0.3379914 -1.835369 -2.85515 213 206 230
-0.2964966 -1.621275 -3.966651 32 28 24
-4.519099 -5.225145 -2.932594 172 170 123
-1.992501 -1.535924 -2.592254 172 157 164
-1.837638 -1.366165 -2.754644 139 141 131
-4.666826 -6.01499 -2.789644 148 149 106
-2.196696 -4.697023 -3.186148 65 68 82
-3.960365 -4.788869 -2.998706 189 186 131
-3.731166 -4.476429 -3.109097 131 121 106
-1.241163 -0.6522776 -0.9733682 139 133 139
-0.1664414 -1.85293 -3.971624 49 48 41
-3.933701 -4.372384 -3.105836 148 137 123
-3.90569 -4.169165 -3.103385 156 145 148
-0.8776633 -1.922829 -3.02649 131 129 65
-0.3365472 -2.160689 -2.741326 41 52 49
-3.708217 -4.994057 -3.097983 189 186 139
-0.9978172 -1.45798 -3.017121 123 125 115
-2.0886 -1.424909 -2.509523 255 255 255
-1.846773 -4.908636 -3.270812 0 8 16
-2.209864 -4.808175 -3.161718 180 165 172
-3.421977 -5.782866 -2.905899 156 145 98
-3.635219 -4.199045 -3.092399 156 145 139
-2.483473 -4.633356 -3.134405 172 170 180
-4.063756 -3.771305 -3.841039 74 85 90
-0.3438242 -1.882477 -2.822508 205 202 230
-1.852526 -0.9114121 -2.712497 82 68 57
-2.093196 -1.390791 -2.517223 238 234 238
-1.73479 -1.500748 -2.797477 57 64 57
-3.588365 -4.52812 -3.099506 164 149 156
-1.923982 -5.456766 -3.093761 57 32 49
-2.77509 -4.872491 -3.12253 189 182 180
-0.179321 -1.82469 -3.95992 16 12 8
-1.701818 -5.581267 -3.004523 41 24 41
-3.724724 -4.889768 -3.088796 180 174 131
-2.336281 -2.626831 -3.005369 164 165 123
-1.007108 -2.025827 -3.02926 205 198 156
-3.194347 -6.232358 -3.068816 41 4 0
-4.498975 -4.319118 -2.946895 172 165 106
-1.728759 -1.499642 -2.807544 65 72 65
-4.250954 -5.169835 -2.936457 164 157 115
-2.01222 -1.533123 -2.576253 189 165 172
-5.010452 -4.667052 -2.949227 148 141 139
-0.3330629 -1.767169 -2.840972 213 198 230
-4.253045 -6.017119 -2.758834 172 174 123
-0.7865512 -1.4766 -3.027406 98 105 98
-1.77057 -1.017959 -3.079386 115 109 98
-4.073962 -5.862641 -2.774505 156 149 98
-3.818092 -5.601594 -2.89905 148 137 82
-0.412121 -2.159331 -2.686738 123 129 131
-4.484194 -5.751605 -2.899154 148 145 98
-1.84403 -1.365561 -2.745414 106 105 98
-0.5798585 -2.611124 -2.363589 205 121 32
-1.733009 -1.470638 -2.816875 74 80 74
-1.667485 -1.193735 -2.676892 230 210 205
-1.783298 -1.542666 -2.771045 90 105 90
-3.399449 -5.209051 -3.148773 172 165 164
-4.243957 -4.078181 -3.203852 189 178 180
-4.497223 -4.072486 -3.164792 172 170 164
-3.000888 -5.021714 -3.119889 139 133 131
-3.656302 -3.936694 -3.137176 123 121 131
-2.228708 -5.14359 -3.143064 156 149 156
-2.026785 -1.604143 -2.584934 189 174 180
-3.497818 -5.367607 -3.13139 164 149 139
-0.9978141 -1.443255 -3.050963 106 109 98
-0.08642869 -1.704801 -4.037554 49 52 41
-4.041384 -4.549118 -3.095537 156 149 98
-1.452121 -2.938995 -3.030203 65 36 8
-2.00048 -5.382346 -3.221211 41 28 41
-1.964386 -1.501028 -2.613618 205 190 197
-1.855998 -4.972414 -3.222985 41 44 49
-4.159003 -3.679144 -3.194402 148 149 156
-3.081846 -4.570141 -3.103057 172 165 172
-0.6913302 -1.692124 -2.908971 98 85 82
-4.375424 -4.199623 -1.604548 82 93 106
-3.371342 -4.139509 -3.042964 156 153 164
-4.68061 -5.138903 -2.932469 115 109 65
-2.093974 -1.491271 -2.502851 255 255 255
-4.169327 -3.673975 -3.34231 41 48 57
-1.651682 -1.464126 -2.887771 65 64 57
-2.090375 -1.636012 -2.568093 172 157 164
-3.018641 -5.393289 -3.160212 180 170 172
-4.247122 -5.239166 -2.965479 172 165 123
-1.797522 -4.803764 -3.349145 57 60 74
-1.608628 -5.329198 -3.11953 148 141 148
-1.130054 -1.090806 -4.425308 65 60 49
-0.06101466 -1.819525 -3.971488 8 12 0
-0.5186018 -1.698267 -2.891939 180 178 189
-2.933913 -4.387334 -3.127043 180 170 189
-2.091262 -1.402816 -2.505044 172 170 172
-1.891744 -0.9190813 -2.696477 115 105 98
-2.068079 -1.340268 -2.543146 230 230 238
-4.000021 -4.466588 -3.114358 90 76 41
-4.174615 -4.990117 -2.934002 32 28 0
-4.578732 -4.719821 -3.098993 180 174 123
-1.883672 -5.095965 -3.196759 123 113 123
-2.696233 -4.907367 -3.118987 180 170 180
-0.5139595 -1.587952 -3.313821 41 32 24
-1.051918 -2.022181 -3.031473 123 121 82
-1.748438 -1.426809 -2.796018 189 190 189
-1.7734 -4.758704 -3.325804 57 68 82
-3.061675 -5.474366 -3.146086 172 165 172
-1.791373 -4.820255 -3.300886 8 16 24
-3.628276 -4.140783 -3.112009 148 141 139
-4.399317 -5.825031 -2.569182 90 101 106
-4.827368 -5.01682 -2.984118 82 80 41
-1.694293 -5.422045 -3.104871 148 133 139
-0.2144987 -1.713616 -3.980756 16 16 8
-0.1023556 -1.697132 -4.039389 57 52 41
-2.982849 -4.867681 -3.105635 148 129 123
-0.335996 -1.456086 -4.422458 65 60 57
-4.589275 -5.825378 -2.833753 139 141 98
-2.043606 -1.481314 -2.546115 230 218 230
-1.799764 -4.762426 -3.530349 41 44 49
-3.614138 -6.781277 -1.949325 148 133 148
-4.584516 -3.801592 -3.105764 115 105 98
-3.957166 -5.443024 -2.906496 164 153 98
-3.704741 -4.914991 -3.148653 148 141 139
-0.3274764 -1.872902 -2.836157 213 206 230
-0.09630628 -1.903373 -3.974553 8 8 0
-3.449116 -5.14259 -3.161478 180 170 172
-1.755948 -1.507953 -2.771029 57 68 57
-3.22861 -4.944954 -3.135993 180 170 172
-0.5876359 -1.695257 -2.972131 123 125 123
-1.99658 -1.449661 -2.579488 255 250 255
-1.842701 -0.9113653 -3.030245 82 72 65
-3.154335 -4.956973 -3.136939 98 85 82
-3.777238 -5.634067 -2.918503 123 113 65
-4.117736 -5.357925 -2.948946 148 149 98
-3.688639 -4.375087 -3.091363 172 165 164
-4.445276 -3.801564 -3.124445 139 133 131
-0.3133593 -1.75789 -2.844795 189 178 205
-3.703041 -5.220693 -3.157592 115 101 74
-3.480785 -5.192399 -3.15614 139 133 131
-3.804461 -5.582746 -3.123075 180 170 123
-0.3768405 -1.789049 -2.839111 222 218 246
-4.430448 -5.573432 -2.969244 164 161 115
-3.791768 -5.128818 -3.031513 180 178 123
-0.2544482 -1.866465 -3.972117 49 36 24
-4.285499 -4.111523 -3.184208 123 121 123
-0.5083104 -1.810231 -2.829882 164 157 189
-0.9012153 -1.930268 -3.023247 115 109 65
-2.852568 -5.111344 -3.157333 164 157 164
-4.158679 -3.896015 -3.162157 131 125 131
-4.097474 -4.368563 -3.170617 164 161 164
-3.391394 -5.860289 -2.863007 156 153 106
-0.2661662 -1.576447 -4.049259 82 76 65
-3.002419 -5.440809 -3.171913 148 149 148
-0.1079784 -1.690022 -4.002324 49 48 32
-4.622626 -5.056033 -2.933092 164 165 123
-0.2603845 -1.545241 -4.436767 106 97 90
-0.03522197 -1.754188 -3.962218 32 28 16
-4.689445 -4.108159 -3.10291 148 137 90
-0.07602278 -1.822422 -3.970171 41 40 32
-1.00115 -1.314395 -3.031978 106 105 90
-4.652914 -5.101107 -2.915109 106 101 57
-4.273194 -4.100651 -3.179116 115 117 115
-0.3627284 -1.80906 -2.824979 139 141 164
-4.004927 -3.673014 -3.265845 41 44 49
-0.129784 -1.762529 -3.970231 16 8 0
-4.344083 -4.262506 -3.207276 172 157 156
-4.434573 -3.95037 -3.151536 172 165 172
-0.5923744 -1.731014 -2.867475 180 174 197
-0.199898 -1.742748 -3.976035 24 20 8
-1.206981 -0.6238057 -4.447888 106 101 90
-1.738097 -1.922338 -1.68766 139 137 131
-4.135417 -5.178512 -2.899055 156 149 106
-0.2143805 -1.710852 -3.974864 16 12 0
-3.915309 -4.720434 -3.006433 189 178 123
-4.320387 -5.922875 -2.768419 90 89 41
-0.8772368 -1.51883 -2.248481 65 89 57
-3.675257 -4.098627 -3.09509 148 149 156
-0.1980055 -1.760976 -3.974806 49 40 32
-1.004196 -0.6065398 -4.446606 123 117 106
-2.536831 -0.5274692 -4.476755 49 48 41
-4.657414 -6.060364 -2.693495 82 93 98
-0.2603494 -1.702754 -2.894714 189 170 189
-2.546278 -4.73451 -3.332489 65 68 82
-0.9920276 -0.963552 -4.438973 115 105 98
-4.318931 -4.347785 -3.08985 180 174 123
-0.8766097 -1.091542 -4.422454 106 97 90
-1.209696 -0.6251664 -4.447659 106 101 90
-1.922644 -0.3327575 -4.456099 115 113 106
0.06612606 -1.896506 -3.974624 24 20 8
-0.3208726 -2.202523 -2.565191 98 93 90
-0.3248582 -2.171524 -2.336181 123 117 106
-3.500196 -5.161111 -3.171396 172 161 156
-3.774482 -5.28201 -3.147244 180 170 123
-5.955884 -4.375539 -2.814178 0 12 16
-4.872879 -3.352336 -3.130159 139 137 139
-3.626565 -4.001338 -3.130288 156 153 164
-5.656945 -4.62124 -3.014782 8 16 24
-1.869027 -1.361095 -2.719267 139 141 131
-4.165166 -4.641479 -2.847473 164 161 115
-0.2658797 -1.936465 -2.837507 139 133 189
-0.2739578 -1.893135 -2.828636 230 226 255
-4.906488 -3.558338 -3.090003 82 80 82
-2.992982 -4.957641 -3.143586 123 117 106
-5.766995 -5.511916 -3.210814 148 149 106
-0.36893 -1.890463 -2.820059 255 250 255
-5.708916 -3.990238 -2.862018 148 157 164
-5.932748 -4.520123 -2.841611 74 89 90
-5.601897 -3.749123 -2.876201 156 157 164
-0.3212961 -2.157527 -2.822303 65 76 82
-0.08561882 -1.800326 -3.97936 41 36 24
-5.189136 -5.771414 -3.084607 82 93 98
-4.767996 -3.538133 -3.140543 131 129 123
-4.249786 -6.178337 -2.687801 90 97 106
-1.87515 -1.313278 -2.728596 115 117 106
-3.918016 -5.503253 -2.746047 156 149 98
-5.215594 -3.346469 -3.118754 65 68 65
-5.991321 -5.438658 -3.295377 98 97 90
-0.7623873 -1.090349 -4.461217 123 117 115
-0.3707128 -2.158241 -2.494287 98 97 82
-4.431734 -3.736773 -3.109246 139 133 131
-5.568719 -3.870738 -2.929708 164 165 180
-5.543159 -3.737561 -2.94442 16 16 24
-1.846413 -1.333577 -2.74127 123 129 115
-4.062941 -3.739165 -3.153653 123 125 131
-2.502102 -4.989933 -3.158326 148 149 156
-0.2721284 -2.164015 -2.521751 106 97 90
-3.64433 -4.216766 -3.091184 148 141 139
-0.2246636 -2.200047 -2.937718 106 113 115
-0.2376798 -1.702992 -2.893065 189 182 197
-0.2763035 -2.150248 -2.346364 115 113 106
-5.81204 -5.34681 -3.1189 82 89 90
-1.819112 -1.384735 -2.756461 148 153 139
-0.01633642 -2.043874 -3.693849 41 36 32
-0.330563 -2.165844 -2.356163 74 72 65
-3.934557 -4.331607 -3.095189 115 105 90
-0.4583324 -1.78272 -2.871232 205 202 238
-0.2694611 -1.837865 -2.877124 222 210 238
-3.556353 -5.334298 -3.185804 156 149 139
-0.21405 -2.156351 -2.459916 98 93 90
0.01847047 -1.889987 -3.01026 197 206 205
-0.4755267 -1.79442 -2.839327 164 161 197
-0.3337594 -2.16134 -2.825644 115 125 131
-2.493837 -4.675626 -3.175221 164 165 180
-5.638031 -4.583578 -3.016378 16 24 24
-5.699659 -4.012691 -2.834579 16 20 32
-0.102336 -0.222939 -1.645852 90 85 82
-3.749752 -4.832589 -3.037223 180 178 131
-0.05979852 -1.859306 -3.014862 222 226 230
-4.910575 -3.372422 -3.134672 148 141 148
-0.337444 -2.156122 -2.81027 131 137 139
-0.233993 -1.881464 -2.86521 213 210 238
0.02087013 -1.773223 -3.963024 41 36 24
-3.619507 -5.643682 -2.989664 139 133 82
-0.3897393 -2.03313 -3.905428 32 24 16
-0.3076214 -2.164724 -2.847149 49 56 57
-4.030005 -5.962437 -2.854309 156 149 106
-3.790799 -5.392965 -3.153974 65 56 16
-0.273875 -1.710947 -3.968938 49 44 32
-4.215871 -3.578746 -3.178152 172 170 164
-2.649314 -5.144417 -3.156041 123 125 131
-0.2547192 -1.886592 -2.843043 197 194 222
-0.3502986 -1.802472 -3.950565 16 12 0
-4.290732 -6.100085 -2.758576 156 161 123
-3.393101 -5.751888 -2.684366 148 145 106
-2.424855 -5.025103 -3.149641 164 157 156
-5.723538 -3.897397 -2.869968 156 161 172
-1.754455 -1.002241 -3.466009 65 56 57
-2.654759 -4.798375 -3.134754 148 145 148
-2.043862 -0.8720058 -2.465385 172 170 172
-2.797633 -4.957408 -3.13497 164 157 156
-0.277274 -2.177705 -2.935174 98 101 98
-0.2614386 -1.863141 -2.842885 230 226 255
-4.960312 -3.52257 -3.124368 131 137 139
-4.89842 -5.838131 -3.053847 90 93 82
-2.487862 -4.972675 -3.157151 148 149 156
-0.2686789 -1.725819 -3.970007 49 40 24
-2.040681 -0.9018141 -2.600305 32 36 24
-3.405356 -2.032111 -3.008482 90 93 90
-5.101264 -3.706922 -2.892944 24 32 41
-0.1663978 -2.214758 -2.961445 139 145 148
-0.3379362 -2.098839 -3.948147 49 40 32
0.004558667 -1.888916 -3.019372 197 198 197
-0.07923898 -1.842649 -3.024512 197 202 197
-5.674832 -4.03525 -2.851772 0 12 16
-0.2178338 -1.799559 -3.986398 49 40 32
-0.4493976 -1.822554 -2.817975 213 214 246
-4.836851 -4.672209 -2.947358 131 129 82
-3.290711 -4.877568 -3.123914 164 157 156
-0.445496 -1.68989 -2.915261 131 121 139
-3.770295 -5.268109 -3.138907 172 170 123
-5.142696 -3.23038 -3.15801 148 145 148
-5.729221 -4.026725 -2.861238 8 16 24
-0.1314244 -2.221149 -2.952169 156 157 156
-4.997489 -3.519448 -3.006892 24 28 32
-2.04529 -0.883657 -2.491128 98 97 90
-5.75658 -3.991141 -2.817379 16 28 32
-1.490087 -1.172307 -3.670075 90 80 74
-0.1542834 -2.202709 -2.875713 98 113 106
-0.6923226 -1.710082 -2.897007 131 129 131
-0.2271177 -1.795342 -2.868718 230 222 246
-3.492318 -4.648712 -3.120161 131 129 131
-4.512746 -3.912536 -3.118711 123 113 98
-4.676091 -6.009945 -2.78546 139 141 106
-1.563465 -1.187045 -3.051708 90 89 65
-0.3249404 -1.668037 -3.977135 41 32 16
-5.307767 -3.534774 -3.000247 57 56 65
-1.358968 -1.342679 -2.150111 197 210 197
-4.146169 -5.286223 -2.983619 164 157 106
-0.3722533 -2.164843 -2.437507 106 97 90
-3.23366 -5.019107 -3.145446 131 121 115
-2.48063 -4.952443 -3.162862 156 153 156
-0.2702142 -1.791376 -3.975326 32 28 16
-2.05735 -0.9322243 -2.608291 123 125 123
-5.628921 -3.808209 -2.866856 156 161 172
-0.4544563 -1.779338 -2.867173 205 202 238
-0.2470556 -1.688638 -2.950006 106 105 115
-5.103429 -3.304876 -3.126382 82 80 82
-4.477714 -4.444833 -3.719414 57 56 65
-3.741678 -5.731231 -2.722635 148 141 98
-0.1498894 -1.817918 -3.984268 24 24 16
-3.450067 -5.790886 -2.990033 139 137 90
-2.894189 -5.424389 -3.169008 139 133 139
-2.240702 -0.7365148 -4.103155 41 40 24
-0.1927272 -2.169956 -2.550443 98 93 82
-4.502617 -3.682569 -3.108154 139 137 139
-0.122403 -1.539036 -4.409109 123 117 115
-0.3583175 -1.778605 -2.847717 189 186 230
-0.2443864 -2.153592 -2.411168 98 93 90
0.1535121 -1.872793 -4.369132 65 64 57
-5.477068 -3.769958 -3.020443 24 28 41
-0.1312668 -1.810073 -3.974813 8 8 0
-0.08547623 -1.862194 -3.971174 16 8 0
-0.1224112 -2.046414 -2.979278 255 250 255
-5.290109 -4.11625 -3.01171 0 4 16
-5.151108 -3.319574 -3.114295 16 20 24
-5.329759 -3.460743 -2.990275 123 125 131
-4.999253 -3.433821 -2.964726 8 12 16
-1.841538 -0.9322239 -2.804514 148 137 123
-2.055126 -0.9093135 -2.493187 74 68 65
-1.831003 -0.9422981 -2.82557 82 64 49
-4.405396 -4.273246 -3.08595 98 97 41
-0.5063503 -1.753101 -2.830458 213 210 238
-5.567089 -3.850256 -2.954056 16 24 41
-2.068439 -0.943464 -2.43148 65 68 57
-0.1139762 -1.77147 -3.963676 49 40 32
-4.895189 -3.430041 -3.084303 82 80 82
-4.244629 -5.129519 -3.042006 98 93 41
-0.2668419 -2.159683 -2.628022 106 105 98
-4.988873 -3.596946 -3.00923 57 56 57
-5.028032 -3.626552 -2.957548 16 16 24
-0.9757903 -1.377258 -3.043037 98 97 82
-4.952681 -3.552188 -3.094042 139 137 139
-5.031158 -3.365153 -3.122927 115 113 115
-0.2426528 -1.91423 -2.848315 230 230 255
-4.973149 -3.70838 -3.107842 57 44 49
-5.006691 -4.026127 -3.064184 8 8 8
-0.1875425 -1.82587 -3.96824 16 12 0
-3.614594 -4.649632 -3.131432 139 137 139
-1.360843 -0.9778017 -4.443573 65 64 57
-5.516953 -3.729784 -2.949107 16 20 24
-5.76902 -3.976941 -2.850363 139 153 164
-0.4446144 -1.837224 -2.818223 156 149 172
-5.659372 -4.039725 -2.872918 148 153 164
-4.281626 -4.045438 -3.182167 156 157 156
-5.574398 -3.792058 -2.923218 8 12 24
-5.081942 -3.356931 -3.105052 32 32 32
-0.4757848 -1.839554 -2.815153 222 218 238
-0.1690308 -1.593827 -4.420371 49 52 41
-0.4580997 -1.854388 -2.812266 213 210 230
-4.979776 -3.662001 -3.031091 164 161 164
-4.889714 -3.953534 -3.106933 148 153 123
-4.93861 -3.747602 -3.094596 16 20 16
-0.2130191 -1.959078 -2.879759 172 170 180
-5.107824 -3.263725 -3.137245 32 32 41
-0.01970817 -1.860137 -3.013013 197 198 197
-0.03517481 -1.851519 -3.014606 90 72 74
0.01421385 -1.869512 -3.014109 74 72 65
-2.05548 -0.9148086 -2.434896 98 105 90
0.2537513 -1.680581 -4.407421 115 113 106
-4.447203 -3.421197 -3.216164 106 105 106
-1.075349 -1.141951 -4.409977 57 56 41
-4.752797 -3.556923 -3.128234 106 109 115
0.1066953 -1.622196 -4.413592 115 117 106
-5.544126 -3.791836 -2.941913 148 157 164
-0.79489 -0.9209459 -4.430301 123 113 106
-0.4289757 -1.775036 -2.850588 213 202 238
-3.770024 -4.167161 -3.090748 156 149 148
-3.850313 -4.496163 -3.091952 57 52 24
-4.482399 -3.424365 -3.211124 115 113 123
-1.343506 -1.114764 -3.038027 98 89 82
-5.667807 -4.069977 -2.900211 8 12 24
-0.9831453 -1.120086 -4.456777 82 76 65
-2.050462 -0.8923606 -2.438837 106 105 106
-2.065403 -0.9360361 -2.443489 74 72 65
-0.6001884 -1.8654 -2.843026 115 109 131
-0.5562881 -1.50229 -4.441111 65 56 49
-3.664165 -4.388325 -3.096979 139 129 131
-4.217526 -5.122812 -2.991585 65 60 16
-0.945034 -2.580141 -2.405961 189 113 24
-0.1559057 -1.781201 -3.968447 16 16 8
-4.171537 -3.600718 -3.163718 139 137 139
-0.09839599 -1.778868 -3.967036 8 4 0
-3.92138 -3.732058 -3.222066 32 36 41
-0.1776488 -2.174653 -2.507826 139 125 123
-0.02041277 -1.805298 -3.96043 32 28 16
-5.33722 -4.464059 -3.296431 164 161 115
-0.3657599 -1.979004 -2.707107 164 165 189
-4.968827 -4.184059 -3.109673 156 157 115
-0.3823535 -1.81374 -2.830811 222 214 246
-0.2489352 -2.164704 -2.82552 106 117 115
-5.066478 -3.604873 -2.972993 32 32 41
-0.3550741 -1.799292 -2.828941 222 214 246
-5.689976 -3.170081 -3.066492 123 117 123
-0.1528471 -1.808347 -3.962836 57 48 41
-4.90988 -3.238915 -3.463066 32 32 32
-5.324247 -3.309371 -3.87804 41 44 41
-0.1233413 -2.262188 -2.416013 148 137 139
-0.1490663 -2.228842 -2.548568 131 117 106
-3.480924 -4.328299 -3.073816 139 129 139
-0.1785035 -2.184577 -2.666475 49 64 49
-0.1213804 -2.269264 -2.703888 41 44 32
-0.1255592 -2.270462 -2.644668 49 48 41
-1.276822 -1.214925 -3.016966 74 72 57
-2.091338 -0.8520206 -2.602806 65 68 65
-5.189292 -3.279062 -3.138977 98 97 98
-4.456024 -4.25404 -3.016289 172 165 106
-0.05728488 -2.306487 -2.815545 57 68 57
-3.476256 -4.662386 -3.090304 164 157 156
-4.290251 -4.359254 -3.088888 156 153 98
-1.271166 -0.6502758 -4.455331 106 97 90
-0.5493475 -1.083568 -4.418984 131 129 123
-0.2125302 -1.963246 -2.889225 189 178 197
-0.2359697 -1.82049 -3.967567 16 12 0
-7.516151 -5.116677 -2.431767 8 12 8
-0.1778422 -2.174103 -2.483226 98 85 74
0.2294538 -1.909798 -4.099579 32 28 24
-0.1631648 -2.215597 -2.69161 49 60 49
0.3525002 -2.146502 -4.371141 131 129 123
-5.670816 -3.127021 -3.118179 106 101 106
-4.968722 -3.537976 -3.098278 32 32 41
-5.011312 -3.733277 -3.00758 8 16 16
-4.258387 -5.086924 -2.991444 32 32 0
0.2572089 -1.755883 -4.371996 90 89 82
-0.1060726 -2.269314 -2.510829 106 89 74
-3.242656 -4.536882 -3.087136 98 93 90
-0.1643559 -2.186154 -2.481244 98 80 74
-3.466761 -4.401137 -3.101852 148 145 148
-0.5292203 -1.851828 -2.837652 213 206 238
-0.1122615 -1.77074 -3.962313 49 40 32
-5.024599 -3.150593 -3.258361 115 113 115
-1.743832 -2.709176 -3.008711 74 52 24
-0.08830579 -2.293469 -2.770749 131 137 123
0.09194529 -2.181227 -3.024891 213 214 213
-1.300269 -1.64827 -1.968412 16 44 8
-0.2004608 -2.026625 -2.883512 180 182 197
-4.55357 -4.230561 -3.042752 115 109 57
-5.857547 -2.861458 -3.330768 115 109 115
-4.284956 -5.071614 -2.945927 156 153 106
-0.7601328 -0.2999763 -4.434222 131 125 123
-5.141818 -3.072771 -3.361041 148 141 148
-0.008570233 -1.883501 -3.012517 148 145 148
-0.8674575 -1.707743 -3.027264 90 89 49
-3.554625 -3.90617 -3.155125 49 52 65
-5.377697 -3.198795 -3.138533 148 145 156
-0.1172187 -2.240424 -2.814464 32 40 32
-0.4331616 -1.729905 -2.88208 205 194 230
-0.1649892 -2.217356 -2.582318 106 93 82
-7.555463 -5.033537 -2.230406 74 68 65
-0.6042348 -1.792781 -2.856498 164 153 172
-0.2278856 -1.771304 -3.951824 16 8 0
-0.3549264 -1.75929 -2.860573 172 161 197
-7.376131 -5.001338 -2.353335 32 32 32
-0.1445963 -2.232082 -2.694251 90 101 90
-7.045676 -2.384976 -4.131067 90 85 90
-6.53238 -5.256191 -3.238428 115 121 131
-0.1000452 -2.225968 -2.915143 115 117 115
-0.1144753 -2.290725 -2.424296 148 137 139
-0.4087817 -1.752352 -2.86484 230 222 255
-0.1389994 -2.230988 -2.473833 139 125 115
-5.853642 -2.84641 -3.31233 115 117 123
-4.48103 -3.939454 -3.143655 172 165 164
-1.330684 -1.632186 -2.210934 8 24 0
-0.1077382 -2.266827 -2.481714 106 89 74
0.1331899 -1.902333 -3.957442 41 32 24
-0.06308589 -1.699988 -4.427588 65 64 57
-5.158252 -3.403299 -3.034559 24 24 32
-5.912928 -1.945813 -3.783617 106 85 82
-4.20681 -5.126723 -2.957144 139 137 90
-4.22977 -4.471258 -3.053214 57 56 8
0.08473453 -1.840751 -3.935161 32 28 16
-5.87845 -3.855631 -2.835129 98 109 82
-4.448548 -4.338997 -2.969792 172 165 115
-0.1984825 -2.17154 -2.421849 131 125 123
-5.306502 -4.003639 -2.922816 90 93 106
-4.394981 -4.338815 -2.985383 148 145 90
-0.07731076 -2.302358 -2.779006 139 145 131
-0.4792746 -1.795627 -2.845813 156 145 189
-1.77197 -2.699496 -3.01238 41 20 0
-4.681131 -4.533324 -2.892003 156 157 115
-4.146731 -4.544241 -2.932793 156 149 98
-1.892922 -0.9221898 -2.697125 115 109 98
-0.1089582 -2.228165 -2.874244 123 133 131
-3.484201 -4.567602 -3.108897 148 145 148
-5.674335 -3.693546 -2.932932 8 8 16
-0.1335521 -2.239662 -2.513214 131 113 106
-4.780209 -3.192082 -3.368022 32 28 32
-5.727721 -4.788029 -3.035771 106 113 115
-0.1994615 -2.168165 -2.33899 90 80 74
-4.459349 -4.066574 -3.11565 172 165 123
-0.1808292 -2.175135 -2.455407 106 89 82
-1.092437 -0.4814915 -4.425717 131 125 123
0.1313934 -1.288795 -4.443554 123 121 115
0.0925262 -1.89566 -3.016227 148 153 156
-3.92657 -3.807483 -3.1233 139 137 139
-3.972324 -4.618093 -3.007237 131 129 74
-2.081669 -0.9732417 -2.438509 123 101 90
-0.1573143 -2.208352 -2.54233 106 85 65
-7.111758 -3.504824 -2.583955 16 8 16
-5.483032 -2.914196 -3.400673 98 93 90
-6.116628 -4.290931 -2.788123 65 72 82
-4.685103 -4.033158 -3.038897 148 145 106
-0.1912438 -2.172357 -2.477755 139 125 115
-4.14557 -4.831186 -3.02204 123 117 65
-0.08046629 -2.289253 -2.829528 49 60 57
-0.04280872 -2.310092 -2.805898 82 85 74
-5.342027 -2.981996 -3.36968 82 80 82
-0.5414136 -1.76106 -2.855181 213 198 222
-0.6472989 -1.805513 -2.855919 172 161 172
-5.320415 -4.17968 -2.984671 65 64 74
-5.693111 -2.823737 -3.338913 98 93 90
-0.9893301 -0.4144397 -4.424538 139 129 123
-0.07385701 -2.33866 -2.646404 131 125 115
-0.1181378 -2.270669 -2.399376 115 101 90
-5.002675 -3.44526 -3.109111 16 12 16
-4.846289 -3.370059 -3.157696 139 129 131
-0.4010802 -1.799969 -2.841944 222 214 255
-4.947652 -3.474413 -3.125389 65 56 65
-0.04947528 -2.306147 -2.825172 131 133 123
-5.425956 -3.200951 -3.101905 106 97 98
-7.085524 -2.37367 -3.95676 98 93 98
-1.265859 -1.49117 -2.225813 57 72 49
-0.1033663 -2.252892 -2.811663 90 101 90
-4.913665 -3.845374 -2.975361 8 12 16
-1.860046 -1.00066 -3.065098 131 121 106
-0.3138739 -1.744045 -3.943198 16 8 0
-0.1208741 -2.263691 -2.445408 148 137 131
-0.2382875 -1.850574 -3.964262 16 4 0
-0.1748552 -1.734841 -3.965198 49 40 32
-5.51532 -3.511772 -2.972335 16 12 16
-0.169691 -1.805611 -3.969625 16 8 0
-4.984501 -3.710181 -3.018999 148 145 148
-5.3785 -3.17131 -3.011366 164 157 164
-4.03872 -4.651054 -2.91746 164 157 106
-4.592924 -3.650573 -3.120906 115 109 115
-0.1020918 -2.177925 -3.000069 230 226 238
-0.4637086 -1.831822 -2.81664 222 210 246
-0.1597825 -2.207169 -2.430867 106 89 82
-5.04136 -4.152668 -3.040422 156 157 123
-4.300338 -3.89658 -3.12244 172 165 172
-5.38277 -3.241732 -3.113425 131 133 131
-0.1601591 -2.214893 -2.347364 139 133 123
-0.1216738 -2.251104 -2.454922 106 89 82
-0.1749143 -2.189561 -2.506948 139 125 115
-4.233738 -4.014921 -3.15634 164 157 164
-4.173578 -4.72591 -2.821088 131 125 82
-0.1412994 -2.238059 -2.400606 106 93 82
-0.4233612 -1.943583 -2.626586 205 206 230
-5.304488 -3.209416 -3.037366 164 157 164
-4.332388 -3.829501 -3.144275 156 145 148
-0.1681192 -2.207627 -2.390168 139 129 123
-3.039036 -4.306 -3.115829 148 145 148
-0.08662682 -2.153684 -3.003562 222 226 230
0.07143981 -2.00721 -3.973481 32 28 24
-5.435437 -3.19701 -3.102189 106 101 106
-5.847289 -5.297433 -3.122102 74 85 90
0.3381043 -1.830406 -4.420265 106 101 98
0.1083321 -1.894652 -3.961002 41 32 16
-0.04949707 -2.255104 -3.008303 230 226 230
-0.1433596 -2.221161 -2.483095 90 80 74
-5.808742 -3.652124 -2.851211 115 121 57
-5.703834 -2.806073 -3.424676 98 93 98
-0.1520703 -2.23035 -2.345272 82 80 74
-4.836096 -3.504913 -3.150943 139 133 131
-0.1421591 -1.755481 -3.965125 49 44 32
-0.2887184 -0.6935635 -4.427465 139 137 131
-4.989973 -3.528963 -3.073746 16 16 16
-4.958179 -4.11276 -3.052227 98 105 65
-0.08682813 -2.322773 -2.684393 106 109 98
-5.443372 -3.089611 -3.181396 106 105 106
-0.1562096 -2.205343 -2.457875 106 101 90
-0.1034063 -2.268045 -2.789778 123 133 123
-0.1230857 -2.258749 -2.708297 41 48 32
-1.296026 -0.6994687 -4.427482 98 93 82
-7.166396 -2.307704 -4.127347 65 60 57
-0.824072 -0.5647466 -4.440077 123 117 106
-0.1103407 -2.271872 -2.457115 106 101 90
-0.1796662 -2.186636 -2.345866 131 129 123
-0.05898752 -2.28241 -2.886304 57 64 49
0.109136 -1.939127 -3.010698 82 93 82
0.08326517 -1.93335 -3.965095 32 28 16
0.08216339 -1.933115 -3.965736 24 28 16
-0.1482704 -2.22606 -2.572767 90 80 74
-5.260287 -3.281654 -3.086135 8 8 8
-5.030111 -3.405001 -3.011352 90 93 98
-5.36847 -3.374335 -2.989828 49 52 41
-0.5263716 -0.8341725 -4.394259 123 121 115
-0.07506941 -2.32826 -2.692163 41 44 32
-3.584038 -3.841181 -3.151953 41 48 49
-3.660126 -3.880852 -3.114132 115 113 123
-5.744112 -3.975615 -2.894052 139 149 164
-0.8089358 -1.025501 -4.405918 131 125 115
-5.475087 -3.407055 -2.965412 98 109 49
-0.1389946 -2.241064 -2.369802 139 133 123
-0.1707284 -2.199056 -2.347564 90 80 74
-0.737376 -1.756215 -2.881711 139 129 131
